ply
format ascii 1.0
element vertex 711
property float x
property float y
property float z
property uchar red
property uchar green
property uchar blue
end_header
-0.13088569937287703 33.33410974849267 1422.543008133176 118 140 147
-9.036955441178906 -31.740545506243038 1416.120302966487 146 166 189
23.621492450101638 -17.381727219902416 1424.4854421150867 167 205 149
-58.376803645519324 -1.295488377796106 1416.1081605954396 161 181 204
0.4009751655038404 33.696877944808804 1422.9527007331496 209 234 241
15.459256713617457 -15.13879887382833 1418.3605469672361 30 52 39
39.33971825071514 19.57181125040769 1418.3918211801138 173 198 226
4.015347896958991 17.48605179259923 1417.6041411838612 178 217 243
6.490576305872476 -20.071456437316428 1420.178510308443 140 141 184
-8.17034894796064 -2.2378902888447265 1420.2210414724275 58 67 81
7.4032490835145115 7.631699787737778 1418.0433237542197 28 30 37
-54.29158705098343 4.605585420823871 1421.808557482197 55 59 58
-32.48866625019416 -44.944707440856455 1415.8820775608012 176 199 219
36.0834203364577 -7.058747240003339 1422.9168275700183 102 104 105
-74.00365271311706 20.794286587149102 1417.3824431062617 168 184 205
-35.09483161736481 32.17087881320394 1422.2947551517227 64 69 72
-5.634815497671707 -14.916590960548934 1418.2252676708624 193 211 232
-28.055374310047 -22.320295841331294 1416.7124481706983 70 87 110
17.47858366402091 13.15605844510885 1423.4375734814969 209 242 252
36.47834777076674 23.02261283473113 1421.0259027407246 57 88 135
-18.411242019597783 -34.426559786589486 1416.2919396355435 130 148 162
-12.197291752525164 -65.67592446354193 1419.3465705001736 186 214 235
22.631554712711775 48.80140085184509 1421.747129176136 170 197 198
2.601245652947262 -26.764257714467607 1419.9387335346003 48 69 55
18.667125955899436 45.72326402943059 1420.0191496921552 41 48 56
-53.378812166634496 2.508270204751136 1421.269961494043 158 161 146
8.790614286631712 1.7079001793940172 1420.3505210796695 53 63 60
-54.88100107691541 -80.21729358112167 1418.0154159624503 85 102 132
-4.437946732373643 -33.90351411509446 1420.9487455991298 192 213 224
13.876632054733959 42.565788766599916 1419.89610394828 43 47 48
17.369461323160095 -10.849088751330155 1418.2474437770122 28 45 43
-16.624469298978834 -3.418448297905792 1416.5833436077764 124 162 189
-5.1174375408729595 -34.269655908776805 1420.540248204855 75 79 90
-9.454725131006185 -6.093201583094092 1421.1766143213586 158 176 198
-16.936053388683668 -20.517394074499926 1416.8799118188992 16 47 23
17.640140179737337 6.607762244481637 1423.1798371359014 115 138 179
-4.928619179015469 30.018074856897712 1421.1527672514862 206 226 240
-55.96056629654078 -53.57893199900042 1414.8841181884138 42 44 46
41.223280402468504 4.674184891904595 1419.9676843565835 64 78 79
37.26586201515512 -2.460347788645297 1417.5175692747243 160 189 200
-0.6460785772366503 1.353399579904041 1424.9594250952632 112 116 134
-43.17146131783691 -30.423530951548344 1421.127071419175 82 85 106
20.04709528263873 -14.676581857374154 1421.6019648459462 46 53 56
-28.603589127574107 -35.90355346409139 1416.1776588087062 100 109 108
-13.879303979909677 -7.754582730248533 1417.3640254696397 43 32 39
-75.13664480731573 28.55559361944927 1417.1578994222205 143 165 190
18.869581971837995 13.169751677477267 1424.1872886710858 204 234 253
-19.103346338008087 -36.07268433544402 1420.553023362791 82 94 92
-31.84067359311743 -36.711974616635125 1416.4309358964126 133 139 142
17.128306612151203 -5.513469780532991 1417.7637525410687 158 166 179
-43.247426497640824 22.376033711489786 1422.8337143296367 63 50 77
13.789268117147431 42.70816059220002 1419.7054759572372 101 108 105
-21.54294978814677 7.105011515377257 1416.141031002179 165 178 195
7.540730186596042 26.549980154109264 1416.8540112294938 37 54 67
-20.388385299433644 -5.2044578751004025 1417.4950000317367 42 45 50
45.09177098420301 4.4793780742736065 1417.185837200984 27 44 34
6.363495184335948 -20.052227006725204 1419.4370023319173 161 157 206
20.970939299805703 19.4447371989862 1418.9929148902895 176 188 207
6.2921647850944815 1.3752348401962955 1418.3999133828743 9 18 5
8.788009420175431 -27.10360307994344 1425.1218822090614 94 115 101
-7.402935299866585 35.34644497696649 1421.8588405283535 165 191 198
17.826316684018508 -17.498609371942855 1421.4815486738626 22 34 26
-33.93596846370452 -42.91553073742311 1416.1225802397273 71 85 86
-16.89127518243653 -11.807005460970986 1420.5861908360812 129 138 165
-40.89138577542957 -23.676132618739285 1419.1947197682891 134 151 177
44.44851665873231 26.662400086771513 1424.1081283926474 137 173 209
17.025073483745306 -13.329935508261581 1419.817506561525 67 77 86
-31.143800518830965 12.655451355556897 1418.9811025300394 73 86 73
-24.89774353416042 25.06182698324537 1416.7987876246148 27 55 40
-15.899941668651795 -31.113931041439443 1416.0686109718486 32 54 41
-27.723472783728695 31.038250113581054 1416.9345107153388 185 199 215
-108.00424144979512 -8.6576604470644 1424.5428160092665 21 33 33
-17.148322015095488 27.94492923090527 1416.7769886604908 52 78 65
-44.93958718682381 -40.90813573055054 1418.0512329906198 109 123 137
0.1748157070786419 -14.144556421851124 1418.265679399252 34 42 49
16.702761028347517 -9.590675554307003 1417.2826657384007 64 151 188
16.337011823988924 -5.436644434547921 1421.8522458194548 58 63 70
-23.12842940954744 2.4780424292542755 1416.3092353720433 10 39 24
-31.228614846321705 -37.29446433084695 1416.4282118858616 53 62 67
-20.689106326584074 -5.271269862774192 1417.843618109178 29 49 39
-79.32059824283344 16.05425156837018 1416.7415431878883 90 118 157
-46.67160587583484 -22.420709333935505 1416.4528655204297 26 27 31
27.013358939843577 2.1641747777968336 1416.9075032744727 22 82 64
-34.695999359174046 -40.780369430700745 1414.8145550945515 22 43 35
41.045851595491094 30.813347851168572 1421.8600826759325 88 127 163
-46.96041337475896 -10.639867196889973 1415.7420828122074 173 190 208
10.172166388398932 -27.436592005844506 1428.1164343309863 110 127 110
7.468839537501585 4.676919993966842 1418.323169947109 48 54 51
-60.51051672779792 10.848439596090884 1420.7264417874937 51 56 69
19.38561211517182 26.460917340349027 1418.9713818793718 41 136 180
-18.27562517968668 -36.224113146622685 1416.206425940392 122 166 209
-40.54987545516754 24.00350702051271 1422.2785698638006 143 128 157
-1.250985551471049 -20.387694537739858 1417.207213085067 178 197 214
8.673319368539246 -18.537683759455046 1419.136569920939 132 125 169
31.566691982576916 -9.594847083030864 1419.7456532968777 38 49 45
-8.33895925920119 -8.437387927918369 1416.692441667095 64 71 80
-31.778909587128915 18.031068011540604 1416.4268694614152 26 55 36
-43.40380027797598 -30.28530193349226 1421.393935255929 179 215 234
-59.01110189817554 18.63685982587873 1417.075608397319 196 218 239
20.182920544494106 -15.237642811556363 1422.1566043052599 73 84 90
32.8205362157172 -10.421905044697617 1422.3779709307084 108 159 91
-31.528872979842742 -49.39420232792279 1415.6262916375351 45 66 60
-27.59373053057327 -53.05214077634964 1415.901755711273 132 139 158
5.9706131390839445 -29.37744933059126 1421.2410550342474 45 57 49
21.075457600794213 -22.210522851617913 1417.4642323925082 136 149 156
10.766036111900618 0.6908406990846082 1418.83099092433 57 76 14
14.476771929396193 -0.24383507114545216 1419.5326326375773 96 144 85
26.696359471290403 25.71837252028579 1417.1047985516682 109 144 184
42.303818425867554 30.85475249607738 1423.9386006513441 133 166 201
-39.44163172316975 -4.388417587791633 1415.9240693002762 62 76 102
28.872966902595106 -4.367678529587364 1416.8136149434017 25 59 41
-0.5324583961792717 -13.77703152790104 1418.1559026489908 80 95 98
-35.98002905727101 11.504281871267088 1416.4221776796098 49 62 52
45.13455521740047 7.882161473707557 1417.5031913508906 136 141 147
5.682761190407363 24.32012549490869 1416.6745794443227 56 79 58
34.50946072977199 -7.049993027337026 1421.9647743552705 28 46 25
21.914659738681678 -14.945816193391293 1422.6181792953992 33 42 46
-81.94877791676834 -103.92027784462248 1413.959192687601 100 121 115
-2.0066279856761153 -13.955874700379132 1417.4129430637643 25 35 38
15.629776880059243 -14.144584936922106 1418.4386923361312 50 52 65
17.197628829064953 -13.894807842018524 1420.5280252903349 72 92 96
-106.70140572183519 18.81790034900031 1415.272131925739 118 147 170
-18.806228609723668 -38.528849935991865 1426.599015809991 83 107 88
19.59900578252523 -20.232588265652858 1418.209181126885 15 32 27
-76.78289799594488 16.795726440229142 1419.9473257493376 19 29 44
31.05300801700605 19.34602533063748 1420.900591995024 91 129 172
-18.278303806607045 -34.36428165710616 1416.6565379342255 117 137 161
-60.694925409216694 18.901866907960393 1417.0826808428385 162 179 206
-89.20231772285109 20.632425647569708 1423.2920451653029 58 72 71
8.856914781761102 -34.63939432071332 1423.3785860043324 45 47 44
-18.035280768654577 3.425267056942697 1416.4211378170814 19 49 33
7.189741662959303 -21.797888991307428 1418.4786719358117 169 166 211
42.40919763571235 24.68644939895558 1424.3999064615148 130 164 202
35.52692984854017 3.4587528564136756 1419.0392166502043 28 49 45
18.489183737687217 -2.0191645163253797 1417.0626183948157 88 94 112
-39.29597718268017 -9.972011745229592 1416.1040889569342 114 131 156
-1.5815869778969078 -21.526403525643715 1416.254509976199 39 43 44
-7.440115968246482 -15.959215326787803 1411.9152281645022 128 155 170
-1.0490584786609287 -4.001314548430453 1419.5594546152442 54 57 66
-70.25303714105127 -1.7111611772105648 1425.8175002371718 17 26 27
-10.248602556432626 16.625882471595396 1418.0522132621848 138 176 205
-2.472039428544916 31.491624001534557 1419.2859269382116 102 119 139
19.439986716397396 -3.55979071374136 1416.8479124005032 82 94 96
0.033421036445979026 -32.5484279874644 1419.3075704330465 44 51 59
-66.10228099590563 12.167198311599618 1418.616918125391 55 62 73
-31.08382711989398 20.23359592681535 1416.806959724631 156 191 216
3.549791043889304 24.25401540199647 1417.181556920787 32 47 67
-19.942069381765094 -29.807631461473058 1416.7813183537614 92 96 102
18.013847330064632 -1.3091714230873874 1416.9192052601893 73 79 106
-0.10228861199756879 -31.379719758473875 1417.1623583124788 41 53 69
1.8884550049780089 -30.04848120160119 1417.3213291845443 143 135 133
-7.914422757050771 -35.49764167719432 1421.8199665202849 170 190 209
-21.731326615170147 -1.143065696872871 1416.5993897898902 73 83 74
11.939901616129054 12.561655130294021 1420.881761769055 75 112 156
24.516910704495135 5.429409288509129 1416.957892351828 93 118 118
8.664281648534601 -18.54680997133899 1419.1195555506022 151 149 195
-24.4978678360007 -28.215014586651797 1416.3365348592322 32 35 41
-4.226170645079357 29.625656775304552 1422.290505482738 203 228 230
10.342923706243319 29.252957752652865 1417.6954806466988 138 181 230
2.2149600763680306 -25.062581188421845 1418.1976261312907 98 126 100
-102.88295954701928 -70.99971679946165 1414.649560535527 64 65 69
-29.258065354157733 -54.72260852713432 1415.6208684260846 144 162 168
-1.9837712261083253 -34.40440037316224 1423.38241089311 91 103 89
16.025586472423115 19.322879459529055 1417.3531878464762 32 46 46
-20.731853225916858 -0.6416835891345558 1416.5416479249145 77 90 76
-7.175877387044182 0.7867570397978843 1419.2196116841997 45 66 85
-12.968953887323233 1.1034686322892935 1417.7883598351823 58 68 62
-8.274745359824152 32.14500803983945 1420.9620361654893 52 67 67
-1.3225128440214744 14.828699942317504 1416.7357312570996 110 114 125
-33.369293296039814 -36.93612836481154 1416.2985518489234 142 160 177
-38.64641084811207 -9.697519754697396 1421.6425997674205 156 195 175
-17.47279784995348 -29.419869596459684 1418.3753513139104 42 130 121
-50.68001863741253 -50.49155712708475 1420.2202281740388 52 51 55
20.03709646758948 0.8320794903178986 1418.118081927956 98 119 100
43.571254338898896 -1.5392476890323958 1421.853024168093 30 45 44
-1.5385364388453657 -14.517838146848776 1417.8891795096308 176 185 102
-10.42445623623054 -12.156379726977956 1419.408114132328 22 36 27
8.859789486276615 42.30921967905825 1417.4511992086686 178 199 219
-3.1487805174319012 6.277300891574303 1417.5262365759286 113 133 159
-53.19056109918483 8.383052005671825 1416.8414647376449 193 237 249
49.36453546005522 16.539801668474787 1418.3377483945942 112 133 157
-8.110819870652318 -11.200592166951905 1416.9566644284791 56 54 59
8.40720173100034 7.625302915371048 1416.953102588304 103 110 126
39.204529821234345 12.505152025052132 1417.3531007921931 26 44 38
37.4388263281965 4.062201235320087 1418.7436569409085 42 56 57
23.764145368026043 6.596100393554801 1416.9391429500201 117 124 130
-43.05584418889443 11.107487036622466 1416.1101658142832 121 137 169
48.35845809936086 5.855257392251837 1417.3123224225726 49 65 58
-15.240704220997028 -5.134401732180904 1416.7213260909357 26 24 27
-0.4572805951058282 -9.192615513379211 1416.780400534996 143 163 189
17.061482062929834 -13.514035300521918 1419.6525737110608 67 77 86
-126.10036819228942 -0.4367832478773832 1416.9083459033557 23 31 39
16.502670969341132 -9.288146609444935 1416.7639988337594 38 43 50
-8.46658347740239 -10.530889263700347 1418.2242085165415 150 167 192
21.18460107750387 -13.89322700509862 1422.4468000587387 179 190 196
-27.060364695634274 21.796328088885414 1416.579949246607 27 60 51
-7.206359429240569 -14.065032011686998 1416.5415421846844 121 161 164
16.14748439389215 43.589345757688406 1419.6557118234437 190 217 228
-49.01994186279495 -23.142033083409988 1420.2188081957765 112 136 140
-9.353138561001298 -34.20520112420231 1416.4168103114832 41 55 48
-0.3226762404283616 -28.519575424679857 1416.3409009967738 48 52 60
-16.16445478304061 -14.39885883247874 1420.0303128716703 22 38 58
-13.90927645688868 -6.165718931623597 1416.6626783827937 25 38 31
35.74545047403634 1.6559865467624795 1418.762781768814 186 205 228
-3.5981801512026426 -33.39025343571279 1419.6969086313586 56 59 63
-26.714936920764572 -24.483173008199092 1416.5421436771771 38 36 41
0.29910632826710754 -33.62287094243964 1423.6865945114632 90 106 94
-30.36445619870277 -47.65056437937426 1415.7645555024249 28 50 41
29.763687201652463 -11.008892404502252 1418.7291292726381 40 46 42
-28.88163646606091 18.277660631691937 1416.384366038279 15 54 36
-40.96054708125954 13.372179871176975 1416.3382203079555 43 59 46
-6.6406904616846045 -37.30338898026392 1420.3394882028167 63 73 84
-75.66222292721864 19.88584364667648 1416.760035130116 3 9 13
-21.30563313497523 -36.35356477448607 1415.77019043922 146 168 190
-5.68425062457874 -31.141258790135048 1416.3325866838252 166 177 195
5.559679435805122 -28.98457135443013 1420.5553887935312 26 31 31
-26.015717183738065 -23.43919039023063 1416.4888259687818 213 232 248
30.321896825738133 18.49607530010786 1420.6159533567413 22 35 31
9.303996435681647 -21.494369156960644 1422.7152846754711 159 149 191
-75.78730356068215 -8.127489968045973 1422.9016024433029 176 187 202
0.08723596035753688 -8.23927275066473 1416.6379780335535 33 61 39
0.24677393876507836 -11.430900016043758 1419.4049849530654 140 163 120
43.014568381316366 -2.5218088396718783 1422.2505777816505 88 102 126
-4.067176267009259 -5.811788221458529 1419.96527781221 177 193 209
-22.499113982220656 -23.065312951290203 1416.6836743197903 30 31 34
15.709881269690202 -14.189049601058148 1418.5387044693725 129 150 160
-19.927844847929897 -37.88977603970285 1425.6570045813714 23 38 35
-53.10007516614209 -88.62479660654328 1420.0549405966356 191 216 239
-64.80185557135775 16.79373494796744 1417.6176007869249 139 145 127
-41.4062417000798 21.350868309223145 1421.9897734218714 177 156 195
-3.636117483494794 15.681702521886303 1416.6361418459594 41 65 54
20.214129061387368 -14.95909764966847 1421.4707424040707 56 66 69
-4.211577057627508 -36.01131223174689 1422.6347199232205 178 200 211
22.823131520484942 22.012528240182725 1417.7584433449517 20 32 49
2.582382883776281 34.87323470621059 1419.5292288668752 165 184 194
22.74632719041741 22.048538885564234 1418.5710014173485 154 168 189
5.911163988679227 2.6331362992977656 1418.6507590990188 24 24 31
-54.177641777248716 -15.710218918536428 1423.555045183712 31 52 63
-1.1410546393171364 -3.642771461060744 1420.1781431804839 87 91 100
16.316270389720216 -17.67674153777696 1419.855104111264 36 82 54
-74.1158197226705 -9.749373037876799 1425.0711340275463 52 56 58
-0.9575748319084927 33.4297237816905 1417.195857276287 95 102 121
7.072273815350304 26.253295775544984 1417.0383544552947 82 101 121
-16.47343151902776 -3.489077993591777 1419.5919778850625 48 74 108
38.24502357713499 23.285487085966878 1418.7963066406253 187 228 248
-28.84570179221466 -22.101692682892484 1416.3702126310989 37 37 39
-14.681601069709675 10.044561665169534 1416.3124847575195 60 79 73
24.887097963086003 4.894259252349615 1416.9428669808435 109 121 125
8.437115607914633 1.4610632154218863 1417.7545571078945 26 32 31
-20.880929045267322 -36.25890448676738 1415.9264402630886 120 142 157
40.51994669772949 4.301437984345993 1419.8685293766732 58 63 69
37.44278807410027 22.54538216508247 1419.2472667766808 211 234 252
11.657493468054614 -1.6311770446413596 1416.8486006905212 137 151 164
16.37422959802021 43.96371216270893 1421.0330055470265 166 196 202
40.508444080355375 6.129723141592288 1419.5399621894273 50 68 70
0.02555274710894348 -20.709096341293755 1416.272657779625 56 57 61
-1.3240210869561746 -16.39612841676042 1418.4382978663439 145 158 186
-39.50984786746715 -11.797920947685622 1420.0886214709894 174 205 193
-35.34157839217866 -14.193520044344517 1422.2690618109186 186 220 203
-5.600878109623251 -16.470677870887183 1416.4249576124855 90 99 109
16.5920371302515 24.91993356743325 1417.1297577681894 146 158 183
7.261570516326953 -35.17239248828731 1424.0875049470237 108 104 111
19.780240585009924 -12.229630742090473 1420.9200041399843 63 73 74
19.81991699561322 -19.60964883975619 1419.443608756223 17 28 24
-38.506515335146204 -11.632879846277834 1420.133755840926 87 126 102
-25.98420595307766 -34.82239241313881 1418.4763423424658 147 170 202
-38.66875455653021 -9.67657555530206 1421.5939343501595 156 195 175
52.06314195844948 5.6528072444830535 1420.3260840438006 35 57 55
-10.4125114216423 -4.855447800320372 1418.6228636599292 52 75 66
-5.3314283965263405 35.330382115542214 1422.5080494189265 45 59 56
-1.0685099115276917 6.143446121315567 1420.3084379526827 175 190 209
31.861672596055794 17.809485566052974 1417.3266494810089 12 26 13
-34.17898851448576 11.887386722183674 1423.1654543887455 64 70 66
-38.5773989464992 -47.78377585774187 1417.1475380011864 142 167 195
-3.3911490965907287 -18.550048453677405 1418.2757734933564 51 62 55
9.651418659882486 17.04503723781182 1417.0376247832935 73 90 84
-25.757889259620516 -29.467096342550803 1418.6377275355096 36 41 57
21.402279592850824 -11.180654403722272 1421.6134973114986 59 68 75
-4.575488162088891 -2.579642761317388 1422.9056376357914 218 241 252
-23.129185071663525 -14.288769258789 1421.890264258438 163 175 191
16.307393609859194 6.27486758413315 1417.2141455496824 122 128 144
4.749419516498172 16.64899090976525 1418.3568564181824 30 50 70
0.5995865716961811 -13.050982308988377 1419.0122033677208 45 50 54
16.805532660823946 -13.276960281396493 1419.0439123436188 60 86 82
-0.5046887108054985 -10.902624239564457 1419.1134086239024 44 55 51
-56.01745387631946 -32.12271515231654 1415.1751095163065 103 104 109
-6.440015237735897 -2.019402499008568 1420.186076796531 77 127 61
-67.29617005068938 18.07981169548177 1417.0465645553695 89 102 104
8.494651954318659 -22.539930602577794 1421.102157374782 60 58 98
-8.008530245898262 -11.392333287439586 1418.204857723276 52 55 64
-0.897920413782902 2.1340854177038455 1423.5792769112122 232 247 253
47.86533188469756 16.21216385371067 1417.451520252342 24 36 32
7.0546354994753475 -33.98849806284319 1424.1806905844976 136 131 135
10.937485434495022 2.745379565271887 1419.2065594391681 183 169 85
1.5459131764588456 12.435490390694731 1417.3014337904385 67 77 69
38.619049305616144 19.64300357873637 1418.7471228857887 24 34 58
2.038211819071724 35.73411619246593 1421.3774982106174 180 202 208
-94.64765645974178 14.763622948981242 1415.4997071237067 36 48 48
-1.3354581127845166 -16.55026634865548 1418.7968319338377 123 128 147
-23.007317678767443 2.871566997033268 1416.2114090171465 52 70 58
-86.45471366234081 24.206608630057588 1419.860255693904 150 171 197
20.85300410322096 25.304938867827673 1418.9054418439032 35 54 86
-64.23264140755866 19.65886710951014 1416.1894902424704 162 173 192
-24.28223063304264 -31.992234025569026 1416.2115527962878 20 44 40
26.09428063842197 10.962993059228507 1418.9877051054189 23 33 17
35.182165104442035 1.4236117545226812 1418.7933366783263 177 208 231
-24.781054709057123 -58.20235539938522 1417.3134118761477 108 111 120
-106.36335209341692 15.606605762259104 1414.9510627318948 148 161 170
35.52843173550871 3.4162858364909883 1418.9706906162698 27 54 66
-15.007911970711577 -16.544003844855457 1416.716125771747 15 45 30
-6.029326801283307 -15.839937988247192 1416.4078125832843 150 167 191
-78.44632210232598 -37.086579119568995 1422.3125812409519 70 78 89
-1.2897316680507627 20.108540590173764 1416.1035520396283 89 92 104
-2.787211846933556 31.43527300147412 1418.5099662245839 38 55 79
-58.907278405221334 -33.25649685577288 1415.0534385335027 13 29 19
-35.43202000923393 -13.472763293330745 1418.7558736866565 47 71 68
36.61428567909643 -0.775189383276335 1418.6360547724153 159 172 196
37.30087345855683 21.59009137197463 1418.7173694477176 41 42 59
4.260726850307953 -26.455771358427373 1420.8314204259393 122 153 120
5.0913697245795575 36.730142190641544 1422.2595037695603 201 228 233
-2.4286068404172916 -19.544413787671242 1417.2029020256994 45 52 70
-21.73271646699757 -31.951233856964983 1417.1256720171668 158 191 225
-23.0095535439125 -13.897859878411351 1421.8055074342724 110 112 124
-47.21282523146507 -54.80166665743312 1415.3347291499686 27 42 37
-46.34472814186769 -41.860617728522676 1416.2168328764026 22 28 22
20.977199777146183 13.072299016094611 1423.4061765963836 37 53 78
46.09180945963252 38.83067273199346 1417.992075193327 60 66 79
-34.01704807878815 21.193599593165743 1416.7064615991385 134 140 138
-21.02752538361863 -41.79646222138674 1434.788084387995 120 133 113
28.215186425468843 -8.450534108862964 1416.722391435718 140 146 161
-2.555090424068613 14.354661542454023 1416.7152379080392 130 148 150
53.35582558427174 2.598403584292758 1423.1036381160468 53 54 53
-33.78514608681538 -43.27856966981452 1417.0488862926436 55 70 70
-51.29173577867547 -91.90037320920453 1419.821002224507 199 219 237
30.91065769825642 -12.080865459265762 1426.4144639359336 180 213 155
14.195791929504502 9.09024016222081 1421.8728349408461 241 255 255
22.37562391546251 21.84766589315 1418.0114235117667 20 37 61
-87.29345281159428 22.860694867821497 1420.284426447193 123 145 169
-1.4589104711875673 -14.11805258947346 1418.4407796804262 9 13 14
-19.55365180825277 -25.420795297472235 1416.4818773611655 106 123 107
-6.154738542321643 -14.392684905863828 1418.0904635405957 199 217 237
-41.12169765000165 -41.74775617287117 1415.8941081970409 57 67 63
-99.14534221467873 -28.284433587315895 1415.8772295429412 140 162 183
-2.066298476941161 -17.550258290641512 1418.1354437400005 84 89 109
17.530683154580707 35.218751405944275 1417.7704926316787 160 188 214
44.29296137336709 2.011295972251362 1420.808317319759 100 131 133
-6.10962866058336 17.60422274813593 1416.8409531643993 35 50 69
-5.32733111582231 -15.293328708315363 1416.9969048297667 97 90 86
8.578725917536584 1.8743881028331717 1419.8275182322618 174 190 205
-7.911383173009127 1.8741839306991903 1418.0010978950368 71 82 83
-1.2027436489337644 37.22217482780062 1421.8273171829012 51 65 56
0.4417960897801558 -11.846382249897937 1419.0904449012614 27 32 33
-54.959355511518396 10.003390848411945 1417.8040626492834 140 142 180
-4.1226594165252015 30.64679197718888 1418.0851222664357 46 63 72
-38.39490040825435 -29.288182684062964 1419.6768296757054 26 37 52
11.894653745580202 15.90311779159757 1417.0691408549214 181 208 232
-41.33277369495857 10.732507461105225 1416.7711984159523 111 103 124
-15.75806752236453 10.41338326080937 1416.3355124273883 95 90 91
7.3756524443868425 -9.965950931495215 1417.7418169406053 51 58 65
7.330262215713632 -22.270044101577646 1418.045770366548 37 42 47
29.26083950437291 -10.829805406446555 1419.9162808449996 38 51 39
-72.709996423977 -14.998276060396933 1418.9827240601164 65 80 81
-13.383520230081276 2.5991321569130528 1418.1268089909292 44 62 104
-6.218018161007989 29.848454217717233 1421.6102598167683 124 143 149
-0.7123462932672582 -16.46553465349859 1418.1588934314632 65 71 84
6.859246264432868 37.43670165087464 1418.106678887081 59 76 105
-26.448821867254804 -52.441332507517906 1416.8692181517108 23 32 43
32.23902886272396 -4.236609737888859 1416.8162528392754 150 164 181
-33.3608756469259 -14.249202446489795 1418.4357044283022 18 26 19
-76.84905694757977 -59.674604447938826 1418.0756264103577 31 39 41
35.502595202661624 2.92886216439431 1418.8907655970881 127 137 166
-68.06538789018478 16.6208495504068 1419.19439233273 145 158 171
-60.00824896048197 12.754032279747376 1417.6397095099849 220 241 255
21.11357992098953 -19.941025504514045 1418.3200173152632 3 9 2
-13.503527304346015 -9.486466539421304 1417.365779218938 151 200 210
-135.46638659737147 8.264839699998241 1418.0858605339042 180 186 207
-16.509467744061194 3.5937729625374883 1416.612703346093 36 45 40
-4.575488162088891 -2.579642761317388 1422.9056376357914 218 241 252
-14.796572600192224 -41.82424695329345 1417.2366700304692 28 22 24
-2.996223218405156 31.696766210636675 1422.3045297308754 190 208 220
7.780101263775548 -25.55166665260668 1421.9727426157456 23 42 38
-18.42460765002579 4.693863293439192 1416.362321917795 30 51 43
17.643898172043 -2.0647186245994296 1416.9074201694323 65 67 79
-2.5355068091384263 18.391400306586405 1417.5403645773476 65 72 89
10.66418393205649 0.5368650382552359 1417.9862633272182 29 38 21
7.019795648725165 -33.536629623905064 1424.2409150691183 59 64 70
-36.241619939749555 -42.865116797499326 1416.0888384900709 160 188 209
22.13060072967912 -18.903297721538802 1416.9397616774716 18 22 25
7.037738830687809 2.423831623159993 1417.6977782191655 76 79 85
-29.826324786215434 -28.23541155533483 1418.0864442658017 38 48 58
-8.072456844068848 -8.833755708025183 1418.432993051047 138 162 187
8.861677262677654 -19.740555586447936 1421.6718879207483 189 188 224
44.66527831348384 -2.794751026949001 1425.7122283845779 126 155 156
-42.13117941840513 10.827950301712596 1415.652524761584 113 110 131
41.19513791755024 24.485353290009957 1424.1158193744627 136 170 207
34.962354814688744 1.46135577212271 1418.8104211145355 16 46 33
9.776645060861597 -18.01715086730725 1419.8234077320676 55 61 61
1.8790958040995438 -25.235360695740354 1419.703078761273 163 194 176
-82.30839154853147 24.963615438821286 1423.03694916435 155 181 209
30.408350975539015 -15.800667741074324 1416.4497039892426 32 48 39
-33.092852763972914 9.427587926107087 1422.7158656909157 172 188 103
-4.922256283387015 -16.030150122088727 1416.6360379541595 164 186 208
14.827066317132205 9.94546112215728 1423.508739637951 62 81 117
5.278101215435705 1.9350436365756154 1418.4311886430687 9 7 8
-23.523432686803712 -30.449421488520194 1416.1835824725479 131 146 168
-19.08887118092514 -5.085490581742737 1419.4333455590368 50 75 107
-1.7539137418481274 33.26380953656086 1422.7119683387432 112 135 143
-66.29174841093646 -46.0267312787791 1418.6058100924163 152 188 214
-1.4640754674861003 -32.298127438900664 1417.4963528360636 131 136 146
-17.44420646717416 -29.348647923362144 1416.448803954222 187 208 222
15.349221308120397 -1.4189973578361796 1419.8499482838529 42 55 44
-25.23906927454516 0.6001684212969112 1416.1309834619783 130 136 130
-23.80741036627524 -40.0007098187528 1426.593113512774 35 50 43
31.299245410872114 -9.234684631113053 1419.814994690979 30 33 32
-27.82538198077908 -29.216120843257535 1416.4404221486516 12 15 25
-52.324126999345125 -77.6336869480309 1416.0114000840456 21 25 39
-25.3643711574265 -33.688213239438106 1417.8466685646083 122 145 169
-15.24682721898035 3.627099858261739 1416.408506321785 56 79 74
-22.37378122960646 32.68178798825739 1417.3259684654267 134 146 165
-31.485765009859193 27.533135830051293 1416.772550676161 55 72 64
0.029970935636135666 6.996451016430363 1420.1947196151543 149 162 179
-16.876777419911487 -30.433680655038557 1419.1151615445788 130 126 144
1.3579992320119492 -28.456274930977255 1420.8254650645201 49 38 27
1.1427314408416254 -0.4967896496199173 1422.9503822436966 94 103 130
0.19383505783261648 35.52321297401474 1423.0936751966651 194 219 229
-35.86865578787541 27.43656488989723 1417.2647005497229 109 114 123
-17.97719989004711 -28.062085954875304 1417.5882833260828 71 78 88
-10.381200019855306 -36.45806215598007 1415.1208733564515 77 80 91
4.537568425476164 -28.784446334201622 1419.4232187472355 11 13 17
-44.537378187445974 20.077554107956068 1422.5468522212382 171 145 185
-15.7440763904217 27.048930521177564 1416.703177601801 85 105 103
1.5678747898090557 -26.194584109310394 1419.0909976474481 21 44 26
-35.207152658579034 -15.95185218011597 1419.8102785093054 53 79 72
-4.22028655188624 -0.7265779370327475 1424.0502608377146 99 91 112
-0.5199378271746166 -14.821397257349053 1417.9454853155917 18 21 22
-4.090768539220673 -17.364898230381996 1418.3975133992572 66 73 89
-66.91664749510332 -8.851684481327457 1415.8957161643489 27 53 39
-1.6406842875318624 -25.840262715914772 1416.2960091888028 111 117 122
-63.900220328921904 9.249899362005875 1418.0201882720576 19 19 27
-12.690297633113131 10.070857635211686 1416.3889554227305 168 182 198
-4.725473150687208 -16.150014080170745 1418.2197186065057 46 52 63
7.40957390481817 -18.46212781683762 1419.2573314197164 110 108 145
17.176689183145367 -12.536296554304974 1419.839821937929 84 99 106
-60.70982461061358 14.566082546406259 1416.1695617290538 142 153 170
14.391513781724417 9.020037386903782 1422.0466429183446 65 77 87
-46.143281930614265 -33.32230684515179 1420.1629523735087 197 224 245
-8.091023427368542 -10.946316979350327 1417.8091523254507 81 77 84
-116.2490513724177 -68.16478880870653 1415.8439443851155 51 47 49
41.67348007272829 8.232785130951985 1417.1831784296821 166 174 189
0.37908507535846186 -13.077546966677508 1419.085030523457 80 94 97
-31.918622006780954 11.697519381957578 1419.5890604472527 176 191 100
-78.23232908765765 -44.149947665944026 1415.3201757906986 71 73 96
28.962666433451066 14.406778515087586 1420.2000105136224 57 52 54
-4.37824871841525 16.994205395945052 1416.5591600125479 78 98 87
-1.0734473534263245 -8.433207446579845 1417.081802664708 188 218 241
17.290641728949332 -16.686749131991874 1420.7646545492466 161 173 178
-3.3154505228415996 -33.04175541473539 1416.4994823559457 64 73 79
-17.730870371264363 -38.39847465619093 1427.2513743102031 100 113 102
-19.29915229819665 -36.76269854270834 1419.982396875945 6 19 16
34.010150010901 -8.741446919887899 1421.338657493138 144 162 185
-35.81526153573118 -38.3376908188041 1416.2312750885392 130 144 152
6.098294461568341 -31.025243164244262 1422.1758550073002 108 136 105
22.874766757740016 -23.459797948993984 1423.9200116843285 71 76 80
5.474650206854934 36.46418716819216 1417.3198049189887 158 187 222
0.3538525556456413 40.11251794534532 1422.9782810363101 51 67 57
8.497379052048236 -18.514302677376914 1420.809748117363 100 95 136
11.158634223658808 43.945383850938335 1417.3451910758408 125 136 143
-4.447413300362232 -5.613465008747843 1420.1746871026744 81 90 107
-34.67581176729541 28.286455874417488 1417.1881996979482 179 179 187
23.467893738555627 8.354236818443095 1417.1147826864983 13 33 24
21.629608318516684 -6.167650761499982 1423.0364552273204 16 39 26
-26.45217327404553 -38.50457859900146 1416.129175250171 111 121 122
-12.258094252215434 -13.317054566196521 1416.5305923242474 10 31 14
16.42266178945343 -14.73863036566961 1419.0026996020856 34 58 47
-19.913487234421172 30.754842430959524 1416.9436933379368 50 76 71
1.5933410641736203 34.29087098860809 1419.7739364201645 91 95 103
0.11331534133696594 -23.433745775884315 1417.5153849475703 38 34 40
56.19369281105743 8.109491324666214 1422.4089044004838 67 87 85
-27.839089513247853 -26.488796501914003 1418.6531924019848 102 107 128
-98.00038617364928 -29.59028072498028 1415.511431445068 79 94 87
-142.92332246878055 15.03229382224906 1415.420590326544 176 201 221
-41.28976407723029 23.715168723824373 1421.3760755273445 52 53 56
-6.613687710052791 -5.487984331912959 1421.4620042738516 154 166 181
-10.28826395199351 -6.669477909453703 1417.5870667099982 6 14 13
-74.86394026903629 -56.36729525899513 1417.6879331915743 16 27 23
32.16184747257824 -7.994911507849948 1421.0663796844326 164 197 202
-29.15186761956873 -36.54433710058781 1417.681414884223 117 122 126
35.75780128475041 -7.536303840635953 1422.7552328012484 75 83 88
-3.846390175022689 -2.096360086563278 1423.5541351894735 133 151 173
-7.6796410118634615 -10.383833689301715 1416.637984013119 18 30 26
-35.47886322193479 -12.17424311236592 1421.4697867776038 83 153 90
7.874137996631708 -21.95685710712298 1420.656848131742 101 100 142
-33.44814887660923 12.031822630807612 1421.0572565884781 100 102 101
1.7510026783200332 -2.1006226998511517 1419.8040225379702 56 66 57
19.528337165473133 -11.493122068234758 1420.6940444506909 172 183 183
-33.95930289360628 -43.46306588854997 1417.1939207814596 167 184 206
-4.057856622500443 6.048491404572264 1416.8784268678128 138 159 186
5.806612500779592 11.630214017928012 1417.3154069735328 29 36 33
18.431983765542405 13.779029718183919 1423.4264024283639 55 83 117
-15.557479217619164 -41.51305212858429 1418.2334198731974 135 136 140
-40.64987272642029 9.60163796867547 1416.1680861150342 108 112 109
35.961473317493656 -2.996102697146288 1421.320497565297 46 44 50
-6.015307590308127 -38.751011228563996 1422.7060741098985 78 89 91
-18.2844278821635 -17.554795454343108 1417.2246201360745 187 212 234
-15.722135843053456 -5.030896840346222 1416.780569296438 187 189 201
-40.04302926548945 19.275661329514243 1416.6440423641502 51 58 51
42.707279145714296 17.41848744716623 1423.1241549112578 84 87 94
-13.601786313853248 -63.70923296583326 1416.0041313892916 64 73 83
1.663281168163674 -25.94376434114623 1418.1074513958913 43 34 35
30.0802715489733 -5.1954777224917255 1416.8185788553126 147 159 173
3.516684170730501 41.63115485362427 1422.4256829613855 164 184 190
-19.24391722218419 3.632999634574446 1416.3908526060136 141 147 147
-122.18789338958287 6.607658079136905 1419.906042224059 143 170 198
15.653982758524622 3.11660457612846 1416.992496415004 183 193 209
-7.421070534858939 -12.068907437421776 1418.309441032596 62 57 64
8.122023610472228 -18.912654584137716 1420.993299660206 193 192 229
-0.41044446227119513 36.163691193379414 1422.9017515106107 178 202 212
18.14184789711102 -13.053975927242385 1421.0700795009948 104 109 115
-32.423152643254504 -3.613215656330729 1416.1740293923476 24 56 41
9.45138893561184 -0.0428963087472354 1418.498045634738 45 57 34
-1.7876687515450134 -4.051716618738981 1422.4655439730293 160 176 198
-31.598490062470198 13.384891406015372 1418.9395568387079 105 112 107
47.064673865549395 26.08803430446891 1424.7109674268727 143 179 215
-23.000468047103247 -36.72173115747134 1422.9540746988573 101 114 107
-20.400587931981136 29.608952153621264 1417.0923404241737 169 186 200
-12.555013082285505 26.594844649903756 1416.560575902222 66 78 91
-6.7973041634099145 35.036269723441805 1422.1519127673187 143 169 173
-12.513582395551039 26.46621423104505 1416.498533038534 78 88 107
-37.54115997187764 -28.324991264979285 1419.3356043708354 74 85 109
6.316137333336848 -28.43589212836212 1423.1320911255434 98 125 108
-34.87913224867018 29.088720735684596 1417.0228663752464 171 175 188
-23.353669688495867 -32.28912891424989 1416.31422325989 136 162 184
2.8402266626683557 5.291502169975364 1416.815001597906 63 65 63
-10.495836040684926 1.669803742872092 1416.9504420689861 21 40 34
6.433317871386531 -25.385964852258358 1420.0696629689564 42 48 44
17.13968013936251 31.89139375909426 1416.9613260662475 73 98 88
-24.027685426092727 -57.0193436189759 1417.5653322537603 53 56 65
11.738587409194782 8.391394059100953 1421.3965652640857 54 74 106
-1.2988162405106054 -0.5143820314559605 1423.4968408409113 89 100 122
31.648858181263876 0.8761840035334845 1416.9357124756427 111 131 138
44.55388289821891 32.12323179937986 1423.905636230622 145 178 213
0.6967712582714853 -41.87047306203748 1420.1434590093118 126 125 116
-42.44119783977717 36.34179429034303 1418.5250876855814 26 23 25
32.270282902272896 -8.093508585415549 1420.794265381352 193 218 227
8.195992518976034 -20.964866534603185 1420.3434961354521 173 173 209
-5.62805084633764 31.007366128117418 1417.611682732766 74 83 92
-49.44539124818281 -11.407684634494709 1415.5936309096808 103 108 121
4.622229554762548 24.431155836158357 1416.5435761275066 167 178 196
-64.86695214856842 -51.84935983198126 1415.7564707771176 51 67 92
8.313280782479632 -18.261931576376416 1421.6736256889867 109 106 153
21.706666979208954 22.216715832685384 1417.9862089329106 36 52 78
0.6420516377970126 -12.617199181795765 1418.8427101358202 53 58 61
47.77937534768499 1.9915106353042866 1421.8685598091815 15 24 23
9.484106362308834 1.5084619902516174 1418.4813113191956 23 36 27
-17.649285609860264 -16.072909088701365 1419.466996231997 58 89 130
-44.2866442604364 -46.36528747752737 1415.2391549622237 62 77 99
7.850043944679197 27.121738325262946 1418.3237586590003 19 31 48
-0.07631910888078323 32.35583135326703 1420.6483750321424 190 217 228
5.269770016974204 36.59471487223367 1420.7760517789816 31 53 40
-5.380685636874171 -15.682917947354046 1418.2551724925884 151 156 168
-31.224909916861126 -37.31205214640634 1416.4039599138985 53 62 67
10.417373378714947 28.692784776871488 1417.705748681726 165 207 240
4.30005567366174 17.450009995387976 1417.924209115164 7 14 24
4.4201184033836896 -30.812297115225192 1421.5966349082616 192 226 233
6.1400534324444465 1.7237352648488011 1419.0624445793587 131 143 140
28.446323077458175 9.070519796473002 1420.5439177384203 15 35 26
6.034299599866905 -10.495661385408296 1416.8033689715605 39 46 41
-6.948234593695789 5.465819850196266 1416.8509101515588 106 119 108
-41.487146010312024 -50.04804818976133 1415.4378352253946 17 21 31
-25.35888275842367 -8.445656297148156 1417.1103794273058 170 195 216
-0.35884007871612233 -15.43233837302321 1418.4606222481557 128 135 151
-12.85841973832317 4.037512428118382 1417.4722416166815 203 225 243
-61.47995950839779 -7.712569083105283 1416.278198897744 59 16 22
-29.62869522003551 1.9714955635051394 1415.9488396232555 67 81 109
-0.5948929592197942 1.7935607793920028 1425.8826732057416 228 241 250
16.637318333487862 -15.3488739483207 1419.920246122943 161 170 170
-14.796572600192224 -41.82424695329345 1417.2366700304692 28 22 24
32.241358796927166 -4.238071400488938 1416.8140203575122 150 164 181
17.153333195561626 7.316806380130064 1420.9277356349476 83 114 151
-24.611807735086824 -34.25950082089824 1416.43163020242 51 70 69
-34.97270297087481 -51.14227575812568 1419.1831393321393 105 132 87
43.95053330797941 41.48960001277705 1417.9006307518625 178 199 213
-60.03009217776973 2.842374691444971 1423.6249066081402 44 50 48
-9.814617574170876 -37.95311121643048 1419.449051074853 73 78 84
-6.680612081021481 -13.336864665431412 1418.3735521462104 168 184 209
-38.757773306706405 -47.47643378301059 1415.6811793300044 57 80 67
4.5014497259788575 17.079358171934835 1418.34340448464 7 12 21
-43.43441685411618 -51.04448250814126 1415.5995715510148 133 137 138
-1.2344265787263482 -12.200952596350591 1418.0676990987934 38 43 49
-44.983306533990195 -12.956266778764212 1416.2673135281614 34 54 43
32.00594361913477 -8.215435471886973 1421.3137738770645 204 227 232
-2.6368715761380437 -19.247923654617868 1417.3603742591936 154 178 204
41.297983647708534 30.872577567130264 1423.6915574316743 129 163 198
-4.529779431037409 -6.3398989547157685 1419.7298103519674 64 67 72
-10.544231893746352 -37.41507992867309 1419.3391932586107 153 178 189
-41.676797064608564 -11.600163511386318 1420.0629535382077 65 78 74
-57.79164580647551 2.8923097798843784 1420.97219587824 30 31 33
-34.18226662487238 11.049394458050541 1423.7548377057838 171 184 169
36.254937175825255 -7.137911970609529 1422.7861943760668 156 173 191
-13.795993482522892 -7.231627567446026 1418.1631168853876 130 154 191
37.50336854825355 -0.24628698204373656 1419.0095612914395 44 51 54
0.8106081325108957 -12.983034640116031 1418.73189259245 27 38 36
-5.639427505298917 -14.916093739487748 1418.4779164832828 174 190 207
0.769641158442156 -21.908984116221006 1416.5352802811947 45 50 54
35.35286504547504 3.5966294861978962 1419.1115610878871 135 148 166
-31.158447512942413 20.589747593513277 1416.9517793594932 192 220 245
-66.30479949732332 34.34326438340728 1416.7025298631136 17 22 28
-4.462822239865094 -44.471175210089044 1398.3173517835694 44 48 63
-4.586819687497182 -13.53138969711243 1419.862242765257 163 167 173
-5.276732647859275 -34.24175973562486 1419.2905553761623 37 38 42
-38.587159317958054 -43.8703456098132 1416.2829462443012 23 109 183
26.547589231178144 -7.768359625523567 1417.1495306851327 44 67 57
21.953065295293317 -11.82794286589981 1421.9870381682151 186 196 197
-18.45410095409653 -36.260053604390066 1416.1576392185698 60 66 90
-32.48866625019416 -44.944707440856455 1415.8820775608012 176 199 219
23.54049477163812 -6.688536092861058 1416.758027666324 87 105 107
-93.83022615177815 -118.31583769521961 1419.5308830779913 117 105 108
-107.81240825118864 -91.7737574941777 1414.2864413691416 26 34 41
-27.116236443377673 -25.347981885847314 1416.2939483759915 88 108 137
-36.17135727141702 -15.36158264477992 1421.5508545653558 119 167 124
-107.20447716795303 -60.43354370559088 1418.1666322363567 161 170 179
-25.525957846211064 28.41884414697385 1416.9514271794076 91 99 87
41.38021918599774 -3.3277481305875996 1423.0593137490828 143 175 208
-108.35978852680178 -92.81399088070182 1415.5951049665264 16 20 25
-39.923196751861994 -10.910669870300097 1421.3037981471743 180 216 199
-26.258314386034748 -1.2051867823246833 1416.321720723405 149 154 150
40.34388166288328 18.24594091444134 1418.394748430423 70 68 85
-3.8147606643295164 31.11043639959225 1422.1491186014625 68 84 91
-20.511676160699153 -29.34090631819693 1416.439888675929 185 217 240
18.6911589907138 35.51630104035395 1418.8242257186353 160 116 170
26.14438317829804 39.23827824380959 1418.214926144642 193 216 239
-53.62681326125834 -24.701213768839136 1425.4437946438172 102 125 127
-10.241970154842301 -4.905942711664412 1419.7814742889705 148 169 190
-10.882204747161236 -11.108931126762663 1416.4802917147126 27 43 32
-2.713874177960858 18.900250753730628 1417.0729827406126 72 99 142
-40.88571869369723 23.18293802887434 1421.6881128079758 156 146 180
-10.432741745254829 -1.2002956125822126 1417.2049734655654 12 28 60
19.3408399400897 27.282367256188422 1418.9585953656335 234 252 255
-44.97805513878634 -46.93997231796119 1415.341931337294 188 197 207
-14.160301167453046 2.4205509779684053 1416.5542153627778 137 155 182
25.27017850120914 -28.69284335257719 1405.4792755804665 24 35 29
43.90383273467366 10.801704058571449 1417.2858876171529 132 143 149
48.97684623021198 3.5900551404993473 1421.584907681142 32 38 37
15.841862056566736 -17.61995540775356 1418.9388463432592 44 56 59
-66.71603744863363 22.94299958294481 1416.8134007174613 196 221 241
20.11416336864209 -12.673582835963954 1421.9279175369063 194 202 211
-3.8501035064782347 -35.2914553905879 1421.8105272807584 98 112 115
-127.46027347789791 -1.559177226806703 1417.2175649661242 178 201 215
30.544464929591925 23.183566670212578 1421.8642814354841 67 95 135
-47.80879685351963 -41.93392029874202 1418.2600466028393 86 98 120
-51.44312498962239 -91.63762350728055 1420.4946342721153 21 30 33
16.73679844200134 -13.530374871981445 1419.1489180306826 122 130 132
7.905711827087326 19.0539700174532 1416.928736618682 127 139 135
-14.556187072406447 -17.423227613432513 1416.4167787726585 19 40 29
4.195036503321337 35.3853968633781 1420.7468189160525 125 132 136
-32.95082384700553 -47.57752598776637 1415.9443813571872 181 209 223
-24.976361318361704 0.4406190459403714 1416.2843484472653 31 51 42
-39.69031649366046 -24.297642736050392 1419.1893847070987 101 116 137
-57.913337129229895 -80.43521432329611 1420.1082629972213 176 212 236
9.336163341742873 27.348109262769857 1417.608889370218 153 165 187
30.93339658958102 -3.9559242204989182 1416.7823931205205 109 120 130
-16.655384114874565 4.677237824485729 1421.805509840484 55 78 62
-2.522352594990354 18.31956869532483 1417.2991066547293 194 211 227
8.329875192154681 -21.725493845625625 1421.8878275204036 201 200 235
28.270242299978428 -8.719650840701574 1416.7854152693853 61 85 81
8.961561237901932 -21.793136380228436 1422.555439350768 125 125 161
-99.10577039036755 -50.95209593433052 1414.8060068769728 179 196 212
-4.68478121010943 -3.837061533646951 1421.7768236118193 112 114 129
-3.556672927224624 -8.864280195650084 1419.379649347121 159 176 196
4.195845985194528 21.026705772691326 1416.7155519542657 135 142 160
20.56972133217212 -2.917360524252326 1416.9861568035853 62 87 83
-4.698490713070993 30.88393878130553 1418.2742796582952 215 241 254
-36.08648497066275 26.837791782514802 1419.3581324999013 163 180 206
19.20903650122243 -26.187579132179422 1425.2594732982764 146 174 136
-53.644245658336914 -17.361339094631703 1423.7624594160566 31 45 47
13.555725522042891 -0.7651315270654029 1418.3120469786359 126 129 136
41.329403166082265 -3.4338675370967886 1423.1829783628248 46 52 58
-41.02430731760412 -18.879625130389517 1416.196854053334 49 73 71
-43.1983043493281 12.451406106096885 1416.7740575507696 27 35 47
5.181103676142771 27.29437480539654 1417.4331752833516 56 76 112
3.7662031466618044 -24.4683164223712 1417.5872939676476 19 24 30
-38.481592715744576 -37.9542560108391 1420.3349762799246 55 63 85
-4.665162143369273 -2.7891036167561487 1422.701227333865 117 133 156
-2.3214644170767276 5.8155032331664565 1418.233830094119 0 9 2
-49.019261342516074 -51.02447818752117 1422.3206730227896 104 115 132
45.38678864928244 26.811772159773305 1424.27920571849 139 175 211
46.741298006933896 12.478412544490215 1417.4761390089059 98 113 113
-52.169575542443916 -13.478041559509641 1415.447097580824 63 67 76
10.325323477595607 -11.309290549056119 1416.318183558665 144 155 161
-22.6005681335433 -28.608421688094644 1416.431019156597 177 202 223
-25.208318384829543 1.5026667557266846 1416.1832559695715 60 89 75
9.761028342589544 -7.8232019814443605 1419.299765064348 23 39 33
4.624075243058591 35.580766017308186 1420.3837511847844 27 36 44
9.913712446474493 -18.01596653506641 1418.3141429826262 169 168 198
-13.148453850176232 -33.947122071114705 1416.214496444847 145 148 167
50.8394438010074 4.069910982577537 1422.8928392457872 187 187 164
-20.00836450395674 -29.984740693220672 1416.7278117402832 164 196 221
-31.416930605628668 30.22565341407347 1418.4162225416435 74 86 110
-7.620355359005498 15.850923327924734 1416.2241500910782 51 51 59
8.206774060475134 6.455464847927897 1418.374229542469 138 156 181
-19.20621157124882 -3.1138035231276215 1417.8303222396366 49 68 57
36.241733365904494 -0.5351163845039218 1419.0304384780604 50 63 61
23.31200716629661 -17.873733148285286 1424.361966060431 166 212 148
17.957072395364467 33.46183097111662 1417.0016626370557 173 180 197
47.01385382163544 27.6815310007395 1424.4000095007268 20 40 64
-1.819707310614245 -32.5042852758136 1416.7672300846616 43 50 68
9.924997440361576 -21.195035052973928 1422.4169541802319 148 143 187
-41.48882591585904 27.31451810101064 1421.1945874880646 56 65 63
42.051936816117106 2.1726695566949976 1420.24837803751 87 94 101
24.037116161920423 -12.31247301792266 1419.689758542843 70 75 81
9.627480747011644 -7.367280802124906 1419.208635351622 100 114 101
